0.271509 0.240222 0.064392
0.116149 0.640625 0.273504
0.228447 0.029272 0.188984
0.155029 0.827131 0.190040
0.258776 0.516310 0.212343
0.088235 0.107043 0.132127
0.182818 0.724723 0.312335
0.251947 0.387090 0.362546
0.090148 0.131046 0.418753
0.079992 0.219597 0.332014
0.412612 0.129905 0.087272
0.314646 0.826814 0.415601
0.174581 0.120709 0.481610
0.206355 0.574193 0.323251
0.351453 0.606014 0.195230
0.224659 0.709358 0.347375
0.368023 0.030119 0.191158
0.310654 0.813011 0.137308
0.361341 0.369478 0.316314
0.248047 0.568116 0.201432
0.175597 0.753261 0.188220
0.308288 0.030206 0.391690
0.190466 0.186373 0.469078
0.261404 0.027410 0.221657
0.358200 0.869068 0.390443
0.343845 0.413818 0.323349
0.274614 0.442948 0.196072
0.208270 0.152970 0.065192
0.277518 0.607597 0.162384
0.140058 0.906485 0.284114
0.127962 0.311214 0.289571
0.331500 0.589310 0.349885
0.354456 0.102538 0.485461
0.083716 0.279791 0.298710
0.113095 0.030068 0.321980
0.129418 0.846571 0.296396
0.219852 0.027841 0.239860
0.149508 0.172097 0.456269
0.357547 0.230537 0.457615
0.453530 0.105834 0.111862
0.283642 0.103593 0.035520
0.329359 0.642940 0.134228
0.466751 0.204026 0.197249
0.404057 0.746050 0.273756
0.179922 0.029581 0.117259
0.379855 0.761602 0.186873
0.202186 0.030946 0.397588
0.178162 0.927979 0.307181
0.442602 0.030302 0.258758
0.157021 0.312531 0.417850
0.228334 0.343871 0.366979
0.266646 0.191909 0.052345
0.268640 0.290865 0.471047
0.352927 0.709790 0.237029
0.374799 0.611974 0.326600
0.299349 0.942098 0.356851
0.161323 0.312301 0.131011
0.065018 0.029780 0.367868
0.509248 0.030103 0.311775
0.350638 0.796890 0.393764
0.132372 0.640896 0.317949
0.337093 0.232628 0.085889
0.142795 0.807561 0.320854
0.433206 0.071536 0.405763
0.089182 0.152820 0.150247
0.171315 0.736647 0.238289
0.290426 0.025964 0.257798
0.453232 0.167266 0.138780
0.202834 0.915960 0.372759
0.387031 0.030035 0.242122
0.346588 0.781578 0.159470
0.145140 0.093951 0.455430
0.389167 0.805651 0.184735
0.148891 0.874098 0.325963
0.297003 0.311362 0.431306
0.273063 0.785879 0.130190
0.083167 0.188314 0.189710
0.175230 0.348250 0.297446
0.370060 0.663809 0.344702
0.244752 0.030427 0.432610
0.333586 0.028882 0.348282
0.371092 0.312359 0.127834
0.333972 0.378556 0.351041
0.317477 0.876454 0.145995
0.510630 0.158930 0.279869
0.107587 0.247838 0.172578
0.364480 0.289970 0.437445
0.236211 0.956400 0.232987
0.110688 0.202434 0.133188
0.360574 0.192786 0.084019
0.096114 0.080950 0.375265
0.226940 0.239397 0.082612
0.348189 0.929263 0.196930
0.387891 0.804282 0.368948
0.426726 0.312487 0.180896
0.503874 0.123784 0.320876
0.150533 0.030095 0.279566
0.210999 0.398995 0.341671
0.345361 0.660365 0.175501
0.437752 0.644568 0.278248
0.180295 0.595502 0.288546
0.277242 0.449208 0.354264
0.152627 0.830953 0.357666
0.209851 0.954018 0.273810
0.264313 0.654666 0.280877
0.259296 0.146438 0.509211
0.294211 0.669959 0.171246
0.270841 0.147152 0.037581
0.251711 0.287106 0.086237
0.201958 0.716482 0.212532
0.298619 0.377676 0.185392
0.245673 0.373523 0.186958
0.280999 0.187853 0.501744
0.422159 0.787459 0.276816
0.371586 0.839482 0.158702
0.490945 0.178353 0.237620
0.426326 0.029970 0.192570
0.243861 0.594158 0.362482
0.166935 0.666273 0.251861
0.233943 0.190809 0.485796
0.384908 0.311970 0.212668
0.376369 0.030494 0.362589
0.125109 0.290576 0.160306
0.307034 0.528061 0.219881
0.176661 0.867795 0.383940
0.168679 0.873662 0.177359
0.028397 0.114636 0.281201
0.190449 0.797606 0.161696
0.303091 0.779841 0.409512
0.242488 0.311991 0.440840
0.204851 0.383291 0.210230
0.230891 0.451797 0.336013
0.208156 0.926843 0.191510
0.426662 0.311467 0.237354
0.418948 0.842285 0.245010
0.495257 0.211993 0.279699
0.161998 0.130525 0.077825
0.413167 0.276546 0.130182
0.369016 0.897409 0.172845
0.169251 0.083645 0.096258
0.392381 0.665558 0.283364
0.097130 0.080797 0.174020
0.487362 0.108351 0.363902
0.284333 0.641882 0.117063
0.203512 0.612823 0.367188
0.495087 0.029661 0.204296
0.424087 0.224593 0.431783
0.201678 0.831142 0.402087
0.104909 0.302652 0.333810
0.205329 0.548124 0.286260
0.218032 0.311351 0.401995
0.470812 0.291020 0.268181
0.166910 0.312261 0.322961
0.298432 0.915841 0.157690
0.471680 0.124593 0.153334
0.327023 0.204851 0.477734
0.246652 0.939064 0.358842
0.318989 0.291087 0.095404
0.064426 0.111557 0.181020
0.195786 0.339911 0.197671
0.225790 0.612220 0.175799
0.203800 0.281474 0.104444
0.276023 0.743510 0.402199
0.295656 0.242272 0.479835
0.411111 0.886393 0.254043
0.310507 0.957732 0.316079
0.327165 0.672313 0.362319
0.173490 0.029873 0.229765
0.280659 0.028841 0.027921
0.202275 0.850607 0.152305
0.440311 0.264239 0.175727
0.475530 0.231100 0.237467
0.401562 0.769052 0.235116
0.405526 0.030963 0.328672
0.130380 0.028064 0.086958
0.237328 0.814186 0.138439
0.369483 0.133977 0.070593
0.245600 0.828696 0.419714
0.409040 0.651640 0.241365
0.138225 0.869698 0.248368
0.306923 0.665857 0.252144
0.343971 0.028062 0.256637
0.150776 0.029624 0.420611
0.323778 0.123854 0.048716
0.455266 0.308418 0.308494
0.225720 0.109999 0.504855
0.201808 0.044394 0.072590
0.479068 0.150273 0.189217
0.357581 0.423498 0.268868
0.051528 0.118252 0.334504
0.382549 0.642900 0.156318
0.322357 0.077280 0.077870
0.318629 0.155931 0.495448
0.322488 0.737847 0.377343
0.170184 0.617355 0.329430
0.289581 0.111981 0.520272
0.348895 0.565563 0.302451
0.053314 0.130360 0.221059
0.268024 0.971612 0.268211
0.042662 0.028107 0.310598
0.137158 0.029727 0.143707
0.153661 0.775346 0.222287
0.237610 0.026657 0.283300
0.442684 0.225036 0.153910
0.289721 0.564594 0.353636
0.249437 0.072461 0.074227
0.230197 0.749093 0.389029
0.133242 0.644333 0.224488
0.285481 0.916441 0.398209
0.427974 0.181142 0.442820
0.404489 0.173656 0.096641
0.232151 0.259839 0.464963
0.259747 0.029135 0.371937
0.475429 0.031577 0.161634
0.175339 0.338640 0.246026
0.144377 0.182071 0.100126
0.375474 0.311197 0.395006
0.466553 0.144247 0.396600
0.360708 0.028259 0.060475
0.109968 0.154285 0.106292
0.128408 0.810890 0.263388
0.231705 0.665645 0.377192
0.207888 0.311403 0.138375
0.107364 0.176935 0.428073
0.277525 0.867040 0.424392
0.341644 0.701683 0.322191
0.064065 0.175994 0.324199
0.164320 0.615480 0.242453
0.257869 0.029566 0.084466
0.391361 0.881729 0.347958
0.229633 0.665122 0.174110
0.164690 0.030993 0.367682
0.091582 0.188778 0.381649
0.215535 0.950013 0.321977
0.418781 0.645518 0.319002
0.186264 0.312227 0.367806
0.339127 0.725630 0.193018
0.101590 0.030292 0.275246
0.296532 0.675301 0.311412
0.270462 0.316722 0.393357
0.471740 0.253929 0.307008
0.368646 0.668522 0.223330
0.266168 0.949119 0.198399
0.303328 0.028893 0.190291
0.118436 0.078115 0.422310
0.171343 0.230999 0.448169
0.201088 0.425230 0.298755
0.418991 0.214670 0.114585
0.521081 0.106078 0.274360
0.297221 0.030224 0.443323
0.066854 0.238307 0.287148
0.184298 0.214501 0.093029
0.272527 0.835218 0.119166
0.175197 0.669161 0.307152
0.267545 0.615613 0.397629
0.377134 0.925598 0.245693
0.254802 0.874707 0.136874
0.238616 0.116015 0.041867
0.140596 0.028024 0.469966
0.320955 0.312452 0.380702
0.189800 0.665404 0.358413
0.178896 0.029675 0.322787
0.375124 0.375380 0.273015
0.375418 0.599301 0.283085
0.430714 0.267493 0.396523
0.457224 0.028096 0.115624
0.239639 0.464772 0.213447
0.414960 0.872337 0.296939
0.317232 0.453953 0.214295
0.360101 0.157352 0.477857
0.308384 0.174738 0.057149
0.318557 0.644581 0.421026
0.255132 0.070395 0.477432
0.332663 0.906801 0.391115
0.466291 0.082508 0.198989
0.415718 0.821779 0.311548
0.161160 0.903463 0.214396
0.330061 0.462424 0.330637
0.290608 0.692367 0.209703
0.480256 0.202599 0.322515
0.235368 0.030475 0.124227
0.229976 0.028045 0.506292
0.064143 0.182969 0.231882
0.183559 0.660341 0.186453
0.035633 0.028066 0.254500
0.188315 0.740672 0.363340
0.137531 0.760630 0.281915
0.379363 0.249118 0.108197
0.454180 0.279572 0.219983
0.422825 0.312473 0.379111
0.385828 0.322606 0.256956
0.129908 0.312281 0.371778
0.071555 0.225564 0.243918
0.092177 0.262933 0.220388
0.208518 0.432764 0.240655
0.082540 0.028208 0.152735
0.057538 0.086546 0.255723
0.504185 0.124307 0.231610
0.255464 0.311111 0.128104
0.193859 0.786628 0.388543
0.137246 0.260670 0.425411
0.200853 0.469145 0.271443
0.396128 0.757445 0.322885
0.282842 0.030169 0.150055
0.042120 0.160571 0.269313
0.445787 0.280892 0.350718
0.380599 0.074779 0.446872
0.343087 0.623296 0.383868
0.447017 0.083125 0.150966
0.278619 0.027214 0.329540
0.396852 0.873741 0.211600
0.306156 0.030009 0.104539
0.218538 0.687486 0.292741
0.184502 0.395249 0.268851
0.227933 0.758580 0.155204
0.333753 0.954421 0.258152
0.359718 0.926828 0.343597
0.191085 0.282783 0.441275
0.479412 0.162442 0.352771
0.483750 0.028216 0.362007
0.356411 0.366660 0.220915
0.061722 0.031174 0.194946
0.248506 0.715009 0.188516
0.517270 0.028107 0.261464
0.316582 0.535320 0.326570
0.112721 0.029486 0.368183
0.149372 0.644609 0.364353
0.076444 0.142454 0.377652
0.300380 0.580068 0.193660
0.279094 0.670909 0.384707
0.134890 0.240354 0.121019
0.216492 0.500071 0.307797
0.458682 0.028238 0.420756
0.130888 0.215801 0.435836
0.401051 0.140977 0.465661
0.374304 0.752382 0.364581
0.288313 0.502206 0.342664
0.409537 0.030490 0.468354
0.235177 0.642896 0.128835
0.321811 0.074134 0.470577
0.164031 0.311383 0.184511
0.343617 0.463612 0.253022
0.107402 0.266044 0.365552
0.395902 0.076814 0.108799
0.383946 0.640899 0.391661
0.082488 0.028022 0.413565
0.262772 0.333637 0.166758
0.098606 0.029649 0.230439
0.356642 0.312028 0.175274
0.244478 0.917144 0.163003
0.275766 0.641774 0.437701
0.183090 0.931131 0.242849
0.218442 0.515255 0.243716
0.230326 0.638422 0.414240
0.352115 0.581241 0.235936
0.117226 0.312407 0.203200
0.451878 0.186377 0.402427
0.209847 0.681269 0.244343
0.337988 0.407598 0.211540
0.328907 0.266739 0.458941
0.359676 0.940409 0.298192
0.458070 0.063966 0.350551
0.340885 0.030169 0.427054
0.448871 0.128276 0.449551
0.180144 0.030952 0.163100
0.404013 0.030289 0.283513
0.337119 0.539045 0.255597
0.404857 0.311254 0.332039
0.335715 0.499338 0.306003
0.310293 0.756329 0.150665
0.273397 0.041959 0.510955
0.130448 0.030134 0.192800
0.365047 0.707836 0.280405
0.357635 0.028513 0.475604
0.159218 0.767802 0.338277
0.459181 0.222693 0.359276
0.306366 0.953372 0.219731
0.413858 0.029574 0.416772
0.360969 0.029039 0.312348
0.300799 0.311290 0.134432
0.475263 0.073456 0.308862
0.248705 0.676845 0.218898
0.084185 0.066767 0.321537
0.295086 0.366508 0.371111
0.366811 0.029304 0.106051
0.392537 0.630205 0.205787
0.186905 0.643000 0.402683
0.207416 0.093786 0.070308
0.233843 0.880544 0.404278
0.133501 0.070622 0.124089
0.182622 0.028043 0.486744
0.091501 0.310804 0.255655
0.246914 0.673962 0.324652
0.438263 0.029382 0.377478
0.311407 0.328544 0.174532
0.246923 0.522375 0.333312
0.203131 0.060004 0.463137
0.358440 0.328030 0.356224
0.485415 0.063213 0.264951
0.406041 0.030008 0.146724
0.290525 0.698181 0.351169
0.202599 0.581542 0.227453
0.119708 0.110489 0.089934
0.260198 0.959864 0.317322
0.343235 0.030827 0.147329
0.413431 0.037213 0.091599
0.109811 0.231736 0.395475
0.318595 0.033660 0.502735