0.675737 0.226306 0.275392
0.656424 0.028591 0.334883
0.703794 0.154695 0.478019
0.820404 0.086520 0.418745
0.757248 0.069971 0.375944
0.752124 0.095259 0.481487
0.598372 0.122270 0.441749
0.876089 0.185560 0.630307
0.508827 0.115107 0.338994
0.522347 0.172894 0.215203
0.890052 0.115782 0.573488
0.699804 0.098426 0.259220
0.885790 0.097205 0.637083
0.827913 0.057633 0.387920
0.581781 0.037522 0.308100
0.837217 0.069726 0.317795
0.302945 0.113523 0.060233
0.702283 0.094724 0.040016
0.661419 0.202330 0.377217
0.704094 0.040039 0.287539
0.684152 0.062367 0.076645
0.692554 0.194056 0.414049
0.688993 0.214077 0.209406
0.609785 0.221372 0.281107
0.834076 0.104853 0.527967
0.679752 0.226558 0.299371
0.704042 0.047018 0.339667
0.817953 0.210257 0.035688
0.804191 0.192338 0.395739
0.837417 0.072250 0.376953
0.683624 0.031684 0.276639
0.656839 0.087869 0.455221
0.318183 0.117297 0.046467
0.776796 0.140325 0.308605
0.588829 0.219016 0.328642
0.717954 0.094002 0.474906
0.676033 0.098780 0.469291
0.594336 0.108406 0.170060
0.974403 0.131134 0.533948
0.578783 0.170809 0.187851
0.577301 0.182244 0.204451
0.657592 0.137928 0.470202
0.691537 0.035259 0.254224
0.571354 0.071855 0.370898
0.490107 0.119774 0.150334
0.628733 0.199120 0.242801
0.712546 0.207111 0.290964
0.289829 0.142305 0.065062
0.481971 0.132213 0.136518
0.713915 0.051480 0.236639
0.843159 0.183633 0.303907
0.693355 0.200949 0.144437
0.768222 0.117775 0.299587
0.710202 0.211926 0.272978
0.403270 0.118983 0.046125
0.512854 0.171078 0.262157
0.598469 0.184100 0.395035
0.731607 0.117197 0.265940
0.744840 0.066809 0.030770
0.048322 0.125160 0.051594
0.782043 0.140247 0.510424
0.729825 0.140237 0.264624
0.808694 0.066766 0.452525
0.392386 0.141724 0.048536
0.503160 0.153122 0.191934
0.513382 0.162211 0.149332
0.806707 0.172369 0.391011
0.908827 0.098867 0.549767
0.762619 0.154972 0.305421
0.633689 0.049482 0.260661
0.888063 0.139864 0.625066
0.679784 0.207396 0.371939
0.666676 0.182868 0.158072
0.933185 0.133279 0.591958
0.599202 0.126226 0.167040
0.625699 0.225102 0.346357
0.821604 0.058746 0.369834
0.750693 0.085269 0.037363
0.617411 0.083687 0.429902
0.614537 0.180024 0.213602
0.709592 0.072437 0.068816
0.661268 0.083736 0.235558
0.626270 0.177993 0.429271
0.892199 0.062903 0.671744
0.496661 0.153746 0.088078
0.882181 0.119413 0.626790
0.727068 0.106232 0.485458
0.674662 0.097142 0.038184
0.407887 0.147090 0.075086
0.500156 0.156629 0.276835
0.711008 0.064128 0.417046
0.868120 0.159629 0.542748
0.714381 0.054521 0.296191
0.787114 0.126460 0.316584
0.568426 0.066883 0.215402
0.857679 0.152904 0.598350
0.556919 0.051370 0.313229
0.806579 0.149422 0.514085
0.538615 0.188394 0.317227
0.551179 0.164566 0.383844
0.854172 0.089783 0.429314
0.771827 0.222127 0.033274
0.753014 0.182908 0.048688
0.651257 0.069218 0.426968
0.707179 0.070750 0.132186
0.702786 0.216078 0.319459
0.776485 0.107752 0.313729
0.528988 0.107413 0.108241
0.848042 0.094534 0.265325
0.719577 0.097138 0.276613
0.533720 0.113797 0.380343
0.207287 0.139131 0.047448
0.572162 0.214111 0.274851
0.157355 0.138815 0.047818
0.769585 0.071816 0.393323
0.673899 0.066185 0.119948
0.770653 0.202298 0.028786
0.584116 0.091919 0.181045
0.661016 0.081785 0.217066
0.844772 0.103542 0.407229
0.927800 0.107030 0.551147
0.597106 0.089839 0.423394
0.591483 0.219149 0.276598
0.604212 0.049310 0.365080
0.869627 0.102518 0.443607
0.510737 0.149330 0.336785
0.667497 0.155038 0.468102
0.610085 0.200927 0.235793
0.711392 0.123567 0.486330
0.642613 0.165658 0.217545
0.578770 0.098319 0.417543
0.807890 0.064203 0.381742
0.540395 0.125599 0.104774
0.698982 0.061510 0.360641
0.696207 0.137748 0.481923
0.656021 0.153653 0.217167
0.681258 0.088582 0.172051
0.763742 0.144536 0.500783
0.510640 0.096395 0.177152
0.732696 0.181485 0.334183
0.852028 0.077228 0.268196
0.505794 0.093659 0.283550
0.748002 0.156402 0.293625
0.621104 0.061998 0.232798
0.239512 0.138698 0.046453
0.825683 0.172835 0.485642
0.666398 0.206566 0.196965
0.599827 0.064271 0.376390
0.849274 0.134779 0.604778
0.853059 0.167824 0.487138
0.122347 0.130349 0.062952
0.540352 0.130253 0.392379
0.670679 0.194790 0.042639
0.253507 0.139862 0.067308
0.496556 0.151949 0.257380
0.591254 0.222257 0.300155
0.716620 0.107198 0.260604
0.657545 0.073525 0.198538
0.506598 0.139668 0.077386
0.701467 0.208340 0.349796
0.655781 0.050827 0.377188
0.858708 0.175156 0.293612
0.699668 0.206888 0.193672
0.805462 0.163898 0.488025
0.804978 0.195635 0.414519
0.866207 0.149091 0.433372
0.597842 0.033793 0.296859
0.889311 0.093503 0.564601
0.717334 0.184672 0.294849
0.707431 0.184049 0.140934
0.837575 0.182314 0.382196
0.635815 0.119321 0.194948
0.404064 0.134218 0.088374
0.683183 0.164143 0.064476
0.618456 0.161927 0.441971
0.467921 0.153336 0.084380
0.742342 0.197295 0.051532
0.716068 0.203284 0.253344
0.935131 0.145150 0.565336
0.716821 0.182099 0.242917
0.621201 0.226351 0.327580
0.902303 0.133485 0.529578
0.286948 0.115555 0.051717
0.916036 0.140643 0.578795
0.703992 0.065655 0.112864
0.576171 0.048056 0.249556
0.607300 0.170490 0.426660
0.508614 0.161920 0.209223
0.611220 0.071377 0.401846
0.412631 0.135311 0.045228
0.311136 0.139974 0.047027
0.869037 0.122753 0.429621
0.867653 0.157661 0.523763
0.733757 0.207240 0.036068
0.766599 0.039994 0.046115
0.718881 0.190133 0.030528
0.783638 0.181679 0.400098
0.731980 0.068282 0.426671
0.824279 0.062623 0.351589
0.772076 0.183816 0.415161
0.672505 0.195340 0.403608
0.726204 0.066835 0.360581
0.830602 0.176930 0.359369
0.923190 0.135078 0.519612
0.503393 0.102939 0.196530
0.868139 0.095360 0.555389
0.691215 0.195662 0.094894
0.511614 0.090543 0.224085
0.695460 0.171186 0.464118
0.931434 0.117457 0.583481
0.636651 0.205223 0.259400
0.853140 0.125754 0.399915
0.571475 0.209468 0.255111
0.612478 0.182205 0.411214
0.715229 0.069792 0.344053
0.672690 0.088229 0.193475
0.750115 0.130691 0.499642
0.452962 0.149968 0.064569
0.588761 0.209073 0.246403
0.690018 0.086849 0.464057
0.569633 0.092125 0.170010
0.214135 0.136020 0.070150
0.679505 0.200100 0.156496
0.608941 0.049644 0.245875
0.564070 0.094974 0.400699
0.591991 0.052239 0.237783
0.749511 0.073432 0.438089
0.837433 0.137495 0.562163
0.588023 0.059436 0.362547
0.212871 0.117056 0.061870
0.577104 0.039373 0.289505
0.646995 0.186152 0.428228
0.802758 0.084779 0.036594
0.715705 0.168320 0.469862
0.855652 0.169183 0.275265
0.845939 0.072257 0.423183
0.328671 0.122424 0.081045
0.590737 0.141261 0.435654
0.583544 0.121399 0.153969
0.828333 0.080902 0.482487
0.695727 0.035463 0.305141
0.709015 0.043661 0.258992
0.589042 0.142052 0.161715
0.617044 0.037047 0.356082
0.420397 0.149350 0.061760
0.833771 0.196067 0.359039
0.846667 0.155960 0.532857
0.674424 0.049128 0.189408
0.918821 0.153579 0.557083
0.518108 0.111660 0.355568
0.676662 0.160411 0.046750
0.818086 0.182300 0.031215
0.785089 0.039666 0.047148
0.704261 0.199025 0.175272
0.547644 0.173704 0.366252
0.680898 0.169120 0.162304
0.545757 0.149394 0.391882
0.581670 0.160976 0.173031
0.848171 0.098125 0.518032
0.639872 0.170215 0.446629
0.714519 0.060810 0.328134
0.647400 0.140530 0.203680
0.655905 0.179753 0.443186
0.871790 0.080430 0.625803
0.068736 0.131469 0.055127
0.701841 0.162381 0.042328
0.828676 0.198995 0.391698
0.516223 0.153069 0.101029
0.770799 0.089848 0.475805
0.744220 0.192797 0.030792
0.794728 0.093011 0.485744
0.823039 0.198273 0.418231
0.772241 0.092346 0.327402
0.764034 0.072713 0.423479
0.945760 0.109324 0.542780
0.843464 0.179365 0.405782
0.383642 0.139687 0.082153
0.792435 0.143609 0.326279
0.716893 0.073141 0.314266
0.693433 0.061667 0.382127
0.747859 0.070403 0.359277
0.700728 0.063935 0.083641
0.626997 0.163097 0.206043
0.701600 0.171745 0.128328
0.885591 0.161386 0.546877
0.482305 0.145938 0.124641
0.824443 0.146800 0.528046
0.673267 0.170122 0.459985
0.894333 0.125936 0.513118
0.687377 0.061114 0.103575
0.557237 0.208193 0.287361
0.542136 0.068117 0.324768
0.908001 0.105644 0.571948
0.811954 0.078078 0.472940
0.030151 0.123993 0.043113
0.698131 0.110930 0.242790
0.558775 0.137085 0.411018
0.514592 0.090464 0.204991
0.791101 0.084167 0.461191
0.504224 0.160765 0.235558
0.701103 0.169342 0.182277
0.339881 0.112595 0.068083
0.542298 0.178782 0.349258
0.278794 0.139067 0.046600
0.610336 0.114301 0.178895
0.839811 0.072876 0.357780
0.671070 0.033906 0.245035
0.344297 0.114742 0.049421
0.802247 0.172407 0.471645
0.676404 0.048503 0.372881
0.867313 0.160733 0.477747
0.152931 0.122514 0.037934
0.491282 0.104759 0.126223
0.657896 0.223504 0.261831
0.642450 0.227839 0.336149
0.552156 0.130781 0.118226
0.792462 0.080668 0.379775
0.775838 0.158004 0.321611
0.848742 0.074148 0.331180
0.511230 0.095909 0.147635
0.619355 0.031726 0.302947
0.643570 0.086015 0.221898
0.424267 0.136001 0.091750
0.528984 0.185189 0.286175
0.803289 0.202912 0.025274
0.608622 0.213215 0.257605
0.549071 0.072234 0.216266
0.877828 0.148374 0.488227
0.570550 0.044768 0.268014
0.456691 0.104696 0.074304
0.589184 0.039114 0.272287
0.544342 0.156720 0.134280
0.676259 0.192259 0.110682
0.101849 0.127934 0.060443
0.675581 0.159512 0.238248
0.831977 0.064709 0.334723
0.678315 0.030237 0.294029
0.693650 0.047188 0.194888
0.708070 0.182599 0.168436
0.428377 0.122343 0.046550
0.857456 0.109065 0.419025
0.506638 0.105070 0.322744
0.466425 0.116584 0.111684
0.818553 0.159252 0.502747
0.716450 0.178653 0.313829
0.529270 0.176873 0.329200
0.877767 0.195427 0.646950
0.552326 0.089656 0.163598
0.783690 0.165422 0.340846
0.942841 0.147054 0.516140
0.743961 0.128214 0.274210
0.649631 0.040023 0.249792
0.862113 0.099250 0.502742
0.825110 0.106285 0.371987
0.561176 0.155135 0.404261
0.755016 0.215019 0.036244
0.809981 0.174208 0.423258
0.570296 0.107720 0.150484
0.704749 0.062725 0.155626
0.533054 0.072695 0.243619
0.840431 0.161810 0.500002
0.692742 0.197838 0.122421
0.702927 0.169563 0.062635
0.650488 0.184697 0.242025
0.363711 0.111350 0.055349
0.810251 0.101142 0.358401
0.308399 0.142038 0.069309
0.655793 0.041403 0.231610
0.713651 0.081734 0.268493
0.764000 0.074649 0.047163
0.587093 0.187510 0.378801
0.267118 0.115810 0.052548
0.227412 0.124179 0.074327
0.869047 0.167554 0.638551
0.706187 0.087796 0.056320
0.846160 0.073670 0.448555
0.261402 0.127122 0.077997
0.917001 0.144557 0.602439
0.784030 0.085428 0.035553
0.697438 0.219730 0.253931
0.848262 0.189874 0.322732
0.804779 0.185238 0.458197
0.853282 0.071397 0.290130
0.603886 0.062199 0.225535
0.258823 0.133757 0.039582
0.551502 0.094479 0.386573
0.550756 0.062995 0.235695
0.666404 0.073170 0.179186
0.860646 0.135291 0.413855
0.517287 0.096780 0.337250
0.695433 0.089119 0.160396
0.565607 0.201749 0.238309
0.759494 0.078394 0.343976
0.465108 0.134849 0.114062
0.655393 0.104869 0.465169
0.621749 0.191468 0.393729
0.795984 0.130384 0.520412
0.636465 0.029593 0.337357
0.551834 0.172207 0.178895
0.839258 0.117975 0.381547
0.825858 0.185555 0.337844
0.560398 0.178685 0.197902
0.189644 0.139929 0.051193
0.702458 0.056138 0.175757
0.707537 0.079785 0.458602
0.700439 0.190812 0.431326
0.688469 0.166448 0.086400
0.697110 0.158068 0.256173
0.869754 0.162486 0.566220
0.641149 0.032423 0.357125
0.500500 0.106053 0.157917
0.747039 0.147489 0.493220
0.488080 0.132129 0.062023
0.592894 0.069900 0.213258
0.576676 0.057208 0.229470
0.608384 0.145479 0.445159
0.592147 0.073200 0.390629
0.773673 0.056268 0.049422
0.704693 0.173762 0.081949
0.100534 0.136884 0.044806
0.630652 0.188552 0.410461
0.645486 0.058226 0.249691
0.604275 0.147835 0.177242
0.895921 0.110120 0.616481
0.708306 0.187611 0.070259
0.871045 0.170553 0.619959
0.787838 0.183465 0.027322
0.738003 0.066232 0.408441
0.812710 0.162334 0.372829
0.659269 0.054950 0.200572
0.622328 0.051440 0.373017
0.695826 0.168605 0.110196
0.646928 0.213099 0.246790
0.900456 0.161558 0.557897
0.872655 0.088888 0.646581
0.501657 0.124818 0.325256
0.752353 0.113630 0.286223
0.448982 0.115006 0.054180
0.533120 0.080152 0.209376
0.851319 0.186724 0.275478
0.792837 0.112180 0.327566
0.553708 0.204691 0.306345
0.638356 0.031997 0.308582
0.714701 0.197416 0.319812
0.527587 0.081232 0.327730
0.668079 0.075892 0.161404
0.695338 0.216932 0.230745
0.599326 0.104741 0.436654
0.446976 0.115086 0.096192
0.814862 0.093024 0.490369
0.367124 0.145311 0.071052
0.417351 0.117485 0.087843
0.721992 0.190313 0.425322
0.869253 0.160151 0.584859
0.532076 0.146150 0.107489
0.724842 0.083005 0.049698
0.847174 0.154456 0.413275
0.697682 0.070800 0.443087
0.786972 0.178729 0.381471
0.539392 0.194544 0.274733
0.738183 0.088429 0.471328
0.435456 0.150752 0.072373
0.943566 0.117511 0.568686
0.716668 0.069157 0.436757
0.485583 0.149031 0.073244
0.663735 0.063443 0.414514
0.670326 0.170000 0.102841
0.877776 0.059948 0.660814
0.633705 0.093561 0.449125
0.830407 0.135842 0.544978
0.842942 0.149969 0.549998
0.891149 0.153229 0.611752
0.251006 0.117186 0.067125
0.748595 0.185507 0.355707
0.683118 0.143475 0.229945
0.718920 0.146133 0.485399
0.279607 0.116614 0.069255
0.523850 0.165072 0.342847
0.760827 0.202424 0.050087
0.515120 0.164191 0.177301
0.814018 0.194075 0.444508
0.571452 0.125858 0.422996
0.720565 0.192796 0.054459
0.884058 0.136495 0.474261
0.716818 0.193452 0.407871
0.897079 0.141878 0.598292
0.679426 0.190184 0.431074
0.440650 0.144262 0.090365
0.358349 0.114501 0.075485
0.714948 0.078109 0.232927
0.504279 0.095465 0.242109
0.905710 0.139195 0.617771
0.601037 0.192629 0.221950
0.668444 0.214415 0.213330
0.550545 0.083793 0.182202
0.606738 0.221879 0.341192
0.523214 0.137043 0.089798
0.788308 0.173347 0.459351
0.876497 0.125709 0.446257
0.866180 0.152522 0.622574
0.677929 0.139559 0.476622
0.677383 0.169453 0.142352
0.742278 0.066151 0.387550
0.719424 0.128790 0.253385
0.906290 0.124149 0.573305
0.611909 0.215203 0.361584
0.913697 0.111136 0.531373
0.549414 0.188617 0.224185
0.844399 0.121009 0.592035
0.827545 0.187177 0.462444
0.689269 0.086204 0.026875
0.298036 0.127696 0.038407
0.532064 0.180306 0.228815
0.630874 0.154347 0.453355
0.953952 0.142287 0.553043
0.809469 0.089185 0.380771
0.770551 0.181239 0.433757
0.529272 0.071439 0.284534
0.657986 0.183533 0.196674
0.739571 0.073411 0.342906
0.568990 0.170453 0.394797
0.520820 0.176266 0.245709
0.964873 0.116032 0.542921
0.591712 0.212867 0.350065
0.530609 0.084147 0.191403
0.848675 0.170068 0.422812
0.703534 0.168471 0.230966
0.688078 0.066250 0.026852
0.868990 0.095761 0.462151
0.751253 0.043834 0.035586
0.583673 0.197886 0.359307
0.840548 0.078627 0.396386
0.635733 0.068536 0.414679
0.625189 0.076796 0.218847
0.733760 0.082763 0.031768
0.777924 0.212651 0.048361
0.569157 0.214626 0.299268
0.572375 0.213926 0.318571
0.427804 0.107413 0.061984
0.713812 0.067946 0.030082
0.885191 0.157247 0.632207
0.755141 0.057523 0.050549
0.703570 0.046413 0.218780
0.678577 0.087671 0.147542
0.552803 0.080704 0.368049
0.833374 0.093330 0.495648
0.861214 0.157968 0.503850
0.753696 0.079537 0.455500
0.500782 0.157797 0.109048
0.938280 0.129250 0.510571
0.866343 0.095967 0.480078
0.531540 0.165124 0.145667
0.640952 0.099991 0.209588
0.842849 0.187987 0.426709
0.668686 0.073218 0.094835
0.880096 0.108076 0.499675
0.477645 0.152559 0.101638
0.749929 0.170282 0.469128
0.908978 0.100971 0.591882
0.667764 0.139725 0.217363
0.964062 0.142665 0.523272
0.766694 0.075427 0.360721
0.192024 0.124550 0.071169
0.384157 0.115911 0.047786
0.850017 0.154580 0.566090
0.663124 0.227522 0.310689
0.816986 0.116104 0.528715
0.673229 0.042701 0.209694
0.791345 0.060170 0.047231
0.562840 0.110889 0.411506
0.717002 0.170732 0.031476
0.662279 0.174428 0.085081
0.409057 0.107917 0.062529
0.760542 0.177680 0.342615
0.681924 0.225818 0.318459
0.752807 0.184291 0.433250
0.683520 0.090841 0.102945
0.673727 0.189172 0.085703
0.482295 0.104395 0.108418
0.678723 0.167515 0.123574
0.724062 0.172445 0.048438
0.717878 0.193656 0.272724
0.623590 0.131249 0.185507
0.214245 0.125995 0.036710
0.790863 0.231697 0.035518
0.675892 0.090545 0.086098
0.046690 0.131900 0.033894
0.490326 0.133354 0.253455
0.544291 0.059778 0.302627
0.783488 0.189327 0.047702
0.617240 0.224560 0.297262
0.625792 0.216120 0.271831
0.682386 0.196093 0.387560
0.517170 0.082774 0.254069
0.757656 0.178355 0.451618
0.539349 0.179007 0.209984
0.533402 0.083203 0.344730
0.682045 0.109144 0.231917
0.663800 0.082925 0.030348
0.887907 0.145718 0.525664
0.876810 0.067675 0.641135
0.695541 0.221995 0.278993
0.452818 0.133906 0.050320
0.245919 0.121021 0.041866
0.835391 0.115626 0.548112
0.735042 0.163681 0.476860
0.887710 0.078991 0.656646
0.613136 0.097561 0.193768
0.551799 0.097178 0.146516
0.139468 0.119756 0.057518
0.569260 0.124152 0.138323
0.707288 0.062407 0.399435
0.644566 0.225726 0.315400
0.797118 0.170316 0.368047
0.693354 0.090009 0.072467
0.666392 0.082648 0.112615
0.557871 0.057092 0.330412
0.699500 0.135094 0.238905
0.728670 0.163425 0.289830
0.691810 0.164765 0.216801
0.664309 0.074069 0.442084
0.492214 0.139688 0.272520
0.642186 0.117779 0.464033
0.685824 0.093495 0.247440
0.702654 0.084447 0.108409
0.800723 0.102357 0.504656
0.189778 0.116950 0.052321
0.599529 0.040259 0.349272
0.354717 0.142557 0.049478
0.789129 0.114170 0.512050
0.548718 0.070962 0.343867
0.530772 0.094319 0.358699
0.837756 0.188609 0.259431
0.625851 0.036010 0.285302
0.617517 0.041459 0.266002
0.766788 0.126920 0.506571
0.652373 0.161187 0.459192
0.496045 0.108403 0.279406
0.737129 0.105627 0.278704
0.522553 0.160215 0.123479
0.691865 0.164496 0.197735
0.691305 0.195622 0.076503
0.710447 0.172050 0.257872
0.565513 0.063593 0.350833
0.808695 0.127858 0.339945
0.754901 0.188354 0.399391
0.836233 0.062876 0.405419
0.799748 0.158569 0.348974
0.511717 0.113413 0.084885
0.650922 0.053932 0.217835
0.118502 0.137561 0.045941
0.908271 0.157288 0.585643
0.494027 0.144130 0.232396
0.560677 0.186732 0.357833
0.822866 0.046955 0.030084
0.494551 0.139799 0.291619
0.499094 0.143098 0.309368
0.688888 0.199871 0.030696
0.846932 0.083846 0.305811
0.349579 0.128534 0.084463
0.724501 0.089633 0.295016
0.769221 0.172091 0.465923
0.381078 0.109732 0.067210
0.709444 0.145266 0.251079
0.804540 0.108862 0.342954
0.702708 0.194494 0.378376
0.716457 0.055669 0.271419
0.880637 0.094170 0.610333
0.887942 0.136186 0.581879
0.577042 0.042244 0.325380
0.529029 0.140131 0.375628
0.496242 0.116820 0.171908
0.715427 0.161449 0.276301
0.880278 0.167478 0.652647
0.666768 0.220065 0.233532
0.232288 0.139388 0.066003
0.707957 0.183306 0.106440
0.494984 0.122184 0.189947
0.707999 0.074991 0.168546
0.789770 0.094311 0.343152
0.337247 0.129749 0.039746
0.695219 0.036589 0.325127
0.693522 0.057450 0.135942
0.508015 0.164558 0.293034
0.555824 0.049734 0.284545
0.890698 0.200199 0.673412
0.547239 0.112049 0.396130
0.645482 0.080642 0.442898
0.652783 0.197977 0.207922
0.793721 0.154550 0.502209
0.591286 0.082948 0.198389
0.503440 0.095301 0.264856
0.709923 0.048178 0.313216
0.845642 0.144359 0.395620
0.677779 0.193362 0.063567
0.492823 0.112924 0.071744
0.812227 0.057416 0.040858
0.747269 0.086337 0.317577
0.642054 0.044147 0.277206
0.802737 0.064444 0.404885
0.729758 0.078711 0.456810
0.868293 0.159984 0.449019
0.884385 0.096427 0.590714
0.678381 0.196042 0.134375
0.357861 0.125727 0.040818
0.816268 0.190992 0.360267
0.793894 0.067883 0.030539
0.742647 0.170953 0.038863
0.791261 0.077434 0.410175
0.663849 0.169464 0.063481
0.771768 0.045163 0.028662
0.826451 0.063404 0.441745
0.903946 0.125910 0.592667
0.676663 0.223542 0.248307
0.867006 0.099062 0.627959
0.658358 0.030501 0.301524
0.511301 0.096237 0.127378
0.836038 0.067906 0.260347
0.829216 0.068821 0.458888
0.886362 0.097286 0.544783
0.471925 0.109280 0.065873
0.725416 0.184919 0.443182
0.713607 0.203786 0.227438
0.739497 0.189693 0.414563
0.855942 0.082733 0.461297
0.547029 0.188782 0.334991
0.835904 0.135077 0.375092
0.856174 0.172599 0.468630
0.675589 0.169068 0.183290
0.895432 0.111965 0.534261
0.780720 0.102126 0.497472
0.567343 0.193725 0.221771
0.688284 0.053620 0.155410
0.495970 0.123953 0.304292
0.758853 0.169746 0.324480
0.329015 0.140724 0.074629
0.479519 0.103263 0.081664
0.603883 0.032403 0.314993
0.697811 0.179509 0.028009
0.701723 0.088251 0.194656
0.492066 0.119260 0.232637
0.332027 0.143043 0.051678
0.623986 0.189619 0.227939
0.731486 0.190461 0.365501
0.700108 0.103470 0.477655
0.685912 0.093017 0.205923
0.760866 0.099082 0.306862
0.889896 0.134984 0.495398
0.574988 0.141732 0.148828
0.465822 0.106657 0.095274
0.687641 0.062211 0.407653
0.595063 0.177190 0.203145
0.683564 0.092049 0.224377
0.531323 0.186106 0.260905
0.534227 0.092837 0.143106
0.660213 0.169536 0.232659
0.231220 0.116073 0.054363
0.696526 0.088366 0.141961
0.882043 0.161510 0.598388
0.821895 0.058661 0.419579
0.500804 0.105299 0.301153
0.815168 0.149442 0.357166
0.677406 0.030306 0.319746
0.582500 0.046773 0.345472
0.713910 0.195651 0.209807
0.567830 0.082775 0.189646
0.644566 0.212544 0.277097
0.563773 0.161856 0.160196
0.673112 0.060741 0.392148
0.630794 0.198992 0.377984
0.640349 0.224075 0.358233
0.658490 0.225426 0.281045
0.749386 0.189165 0.379869
0.491040 0.137684 0.152191
0.585241 0.200860 0.230767
0.566326 0.179165 0.377439
0.802571 0.063254 0.425026
0.595491 0.163337 0.186394
0.628245 0.214859 0.369172
0.670518 0.064188 0.033309
0.532710 0.069073 0.265936
0.398573 0.115193 0.082027
0.740239 0.070391 0.051833
0.885260 0.109233 0.517249
0.650607 0.061524 0.396081
0.915664 0.113111 0.605134
0.825486 0.128653 0.360138
0.495906 0.102807 0.089135
0.759356 0.138743 0.290751
0.655956 0.219506 0.368639
0.555470 0.204532 0.264343
0.666600 0.101063 0.227139
0.658596 0.082883 0.049625
0.730278 0.077684 0.327441
0.683892 0.218327 0.357780
0.829347 0.093704 0.403605
0.774373 0.171934 0.036725
0.777979 0.162424 0.485585
0.911659 0.151550 0.537567
0.565487 0.202282 0.337979
0.531131 0.087390 0.169659
0.687224 0.207212 0.175075
0.594961 0.036545 0.331761
0.664016 0.031702 0.265638
0.885898 0.185417 0.662349
0.694595 0.198591 0.056807
0.584233 0.113711 0.430274
0.674132 0.064735 0.144707
0.798173 0.187257 0.438427
0.818362 0.171717 0.406726
0.853553 0.088412 0.282337
0.685478 0.157306 0.472377
0.690947 0.043706 0.358370
0.617938 0.105062 0.447950
0.717043 0.072787 0.289918
0.847259 0.147127 0.583550
0.458093 0.146091 0.097686
0.967671 0.119325 0.521995
0.575835 0.151228 0.420239
0.526818 0.172136 0.195279
0.787147 0.179411 0.426184
0.375330 0.130336 0.041248
0.819553 0.079199 0.368989
0.311155 0.118417 0.075756
0.767805 0.185266 0.385027
0.786626 0.212249 0.028484
0.499387 0.156267 0.130372
0.615761 0.123466 0.452006
0.514656 0.088336 0.309277
0.949533 0.111782 0.516233
0.629895 0.134575 0.458989
0.795306 0.025335 0.037983
0.670449 0.069201 0.061014
0.710368 0.056804 0.203603
0.631558 0.146972 0.195899
0.646955 0.202584 0.229554
0.659968 0.118860 0.211411
0.701418 0.218514 0.300038
0.665238 0.228145 0.330211
0.676749 0.056723 0.169025
0.789033 0.039547 0.027661
0.668243 0.191937 0.178016
0.840026 0.162515 0.265102
0.704943 0.192449 0.359170
0.867424 0.096046 0.576091
0.772703 0.179553 0.361392
0.436408 0.107301 0.077803
0.176501 0.135336 0.066677
0.493271 0.134063 0.210682
0.556905 0.052912 0.258680
0.613572 0.084241 0.207007
0.843430 0.184027 0.453683
0.948764 0.148944 0.533605
0.735295 0.049099 0.046101
0.877974 0.112978 0.464920
0.513569 0.165676 0.314714
0.157432 0.131957 0.067183
0.512734 0.132398 0.351355
0.675594 0.031542 0.343598
0.866427 0.132101 0.625452
0.279131 0.134399 0.077336
0.929469 0.112862 0.519650
0.772569 0.081696 0.456519
0.694681 0.167927 0.148046
0.650694 0.193144 0.409194
0.825246 0.100487 0.512332
0.674829 0.166541 0.208363
0.659109 0.178388 0.044048
0.683069 0.089940 0.128421
0.720880 0.193589 0.386193
0.544101 0.111789 0.119672
0.720609 0.063891 0.377730
0.679993 0.058252 0.049646
0.774110 0.071656 0.028667
0.710638 0.175701 0.209103
0.849191 0.101146 0.540482
0.139638 0.136871 0.041539
0.667776 0.226191 0.348864
0.504234 0.154154 0.165986
0.851809 0.085361 0.480233
0.069248 0.122685 0.036790
0.728091 0.131474 0.491550
0.606450 0.225029 0.312546
0.541036 0.189895 0.242357
0.685249 0.161762 0.028987
0.742560 0.171773 0.316997
0.844565 0.109957 0.573480
0.875523 0.148623 0.461569
0.191463 0.128573 0.035445
0.495899 0.112707 0.214417
0.647356 0.195968 0.391447
0.762900 0.105516 0.495542
0.619568 0.063758 0.387149
0.469356 0.142965 0.060340
0.560326 0.146912 0.138678
0.535826 0.157008 0.373083
0.685064 0.038672 0.225844
0.707162 0.182776 0.449480
0.374636 0.145776 0.054443
0.857835 0.103401 0.596285
0.590404 0.166417 0.419028
0.717194 0.063188 0.054577
0.800338 0.080511 0.431710
0.542798 0.167764 0.159845
0.610199 0.196765 0.374748
0.566246 0.083192 0.386839
0.823537 0.161075 0.387195
0.680100 0.094154 0.056972
0.521037 0.147439 0.359416
0.739776 0.116013 0.493706
0.657859 0.178554 0.215516
0.661593 0.032554 0.359209
0.795170 0.173625 0.040687
0.667402 0.183809 0.124095
0.690544 0.220916 0.338493
0.799988 0.207905 0.043747
0.900420 0.143119 0.568167
0.827625 0.079034 0.344731
0.811502 0.228002 0.032703
0.669192 0.123554 0.474606
0.084865 0.122460 0.053709
0.493381 0.111516 0.254288
0.889676 0.161484 0.573877
0.698194 0.054342 0.046572
0.865968 0.099023 0.523438
0.855097 0.175051 0.439170
0.612742 0.158010 0.191912
0.858898 0.111010 0.612560
0.714530 0.072929 0.210916
0.886350 0.119956 0.484128
0.650723 0.222630 0.298398
0.704108 0.087738 0.215138
0.781982 0.078263 0.436783
0.712740 0.188710 0.337771
0.711642 0.070331 0.191448
0.667179 0.079179 0.136288
0.717397 0.052218 0.040239
0.844630 0.181640 0.339756
0.832475 0.191889 0.440973
0.890687 0.113658 0.594551
0.556918 0.111004 0.134253
0.296794 0.131509 0.080150
0.663530 0.086887 0.066772
0.704537 0.083212 0.086172
0.812190 0.082429 0.402453
0.789274 0.085118 0.361026
0.669151 0.182570 0.027292
0.510836 0.101320 0.102148
0.638650 0.059084 0.381378
0.129599 0.120834 0.040042
0.173165 0.134699 0.038758
0.673952 0.182184 0.446312
0.686201 0.116209 0.478568
0.929986 0.150375 0.535792
0.711391 0.186766 0.190108
0.743536 0.096260 0.296116
0.368013 0.127189 0.085674
0.110963 0.119641 0.046554
0.496397 0.138900 0.180528
0.804471 0.051197 0.025230
0.684241 0.065555 0.428462
0.810524 0.194248 0.377233
0.641312 0.071467 0.234795
0.530562 0.073554 0.310215
0.625100 0.030227 0.322814
0.612260 0.033023 0.337653
0.162344 0.118110 0.056792
0.708392 0.203821 0.043811
0.718433 0.062749 0.250592
0.468746 0.125612 0.053946
0.092925 0.122750 0.036406
0.881529 0.149544 0.508505