0.520038 0.776789 0.293944
0.135870 0.147130 0.086543
0.137218 0.237410 0.102443
0.174247 0.196945 0.093798
0.288470 0.786585 0.333595
0.495733 0.811538 0.291015
0.338969 0.929955 0.301311
0.296991 0.873199 0.413835
0.187462 0.831695 0.490903
0.433470 0.795356 0.455784
0.123559 0.233884 0.164973
0.187222 0.212988 0.103971
0.412159 0.886286 0.086847
0.200619 0.200789 0.150969
0.191351 0.160276 0.161458
0.450038 0.616611 0.517969
0.125615 0.254864 0.165758
0.379161 0.857638 0.387248
0.268182 0.683590 0.248887
0.507933 0.793326 0.299324
0.464178 0.836148 0.315357
0.112688 0.054370 0.091684
0.174390 0.161835 0.175140
0.101649 0.028298 0.147489
0.554571 0.605451 0.253600
0.221624 0.417739 0.199158
0.284462 0.680046 0.300312
0.270359 0.904458 0.398511
0.365995 0.940845 0.195889
0.150132 0.225167 0.094914
0.248252 0.965373 0.307441
0.212432 0.615991 0.248849
0.479498 0.820984 0.317496
0.155258 0.931248 0.353482
0.215220 0.971613 0.293771
0.102339 0.055948 0.107935
0.125563 0.704528 0.539956
0.192506 0.795280 0.518972
0.146530 0.043754 0.075323
0.163826 0.385364 0.202685
0.351921 0.946076 0.183709
0.346841 0.949155 0.207204
0.363205 0.815949 0.481392
0.360093 0.835993 0.450707
0.128497 0.076916 0.173121
0.259014 0.616825 0.224062
0.222079 0.525906 0.244580
0.232897 0.489933 0.180077
0.407594 0.893186 0.317065
0.268959 0.875121 0.429379
0.300271 0.894564 0.389662
0.104095 0.125769 0.137415
0.405702 0.726312 0.528863
0.308165 0.728340 0.314372
0.199620 0.092236 0.120852
0.230812 0.543088 0.250170
0.224626 0.438884 0.205566
0.196236 0.137966 0.151947
0.246647 0.604858 0.272374
0.432569 0.840199 0.043794
0.408574 0.819842 0.443251
0.154398 0.142696 0.083014
0.344910 0.845888 0.355354
0.126471 0.046287 0.080868
0.068280 0.909479 0.260973
0.230146 0.660250 0.268697
0.337533 0.942178 0.273139
0.115719 0.931137 0.311574
0.201639 0.028264 0.133963
0.188234 0.974055 0.277461
0.147759 0.097776 0.177712
0.382544 0.924830 0.140334
0.449284 0.695574 0.506119
0.123206 0.728040 0.530313
0.435163 0.913375 0.204960
0.162700 0.821011 0.496623
0.195274 0.502815 0.167737
0.365123 0.922514 0.295084
0.163387 0.756911 0.535253
0.385505 0.790895 0.495379
0.203269 0.945721 0.344178
0.247242 0.687887 0.253648
0.239222 0.568432 0.197764
0.179583 0.232924 0.180938
0.174301 0.497835 0.184207
0.182022 0.025000 0.123895
0.529773 0.748829 0.354562
0.500065 0.786210 0.353539
0.400756 0.882010 0.071494
0.247576 0.790981 0.525926
0.140058 0.721996 0.542829
0.563608 0.661318 0.287090
0.431263 0.824207 0.028342
0.198789 0.106680 0.140444
0.274562 0.661897 0.247226
0.463878 0.701808 0.494795
0.204882 0.779622 0.532186
0.155153 0.428696 0.166242
0.341149 0.900038 0.343373
0.272616 0.664211 0.295414
0.251211 0.555412 0.210440
0.433666 0.827948 0.412368
0.449709 0.769484 0.467432
0.157770 0.215235 0.183647
0.416955 0.911813 0.269074
0.258841 0.819280 0.499247
0.115946 0.047785 0.165469
0.290921 0.764939 0.340625
0.241061 0.542810 0.194655
0.466458 0.827508 0.332562
0.133529 0.115815 0.174453
0.224695 0.409003 0.178142
0.166902 0.475852 0.181172
0.161624 0.317553 0.194170
0.104734 0.727416 0.521545
0.186794 0.524652 0.186024
0.456962 0.781663 0.451899
0.042514 0.886530 0.249580
0.115405 0.164176 0.159307
0.325923 0.843772 0.350294
0.280790 0.817807 0.496571
0.256954 0.669095 0.240244
0.099311 0.925325 0.299633
0.179518 0.025000 0.169000
0.458450 0.635257 0.508812
0.139728 0.321789 0.180613
0.392039 0.895048 0.085412
0.554481 0.705935 0.310343
0.242710 0.585655 0.265250
0.203543 0.321316 0.182011
0.184064 0.496421 0.224340
0.111003 0.949269 0.244133
0.359050 0.932941 0.274851
0.414814 0.749807 0.508248
0.462961 0.728246 0.484247
0.316980 0.890092 0.378373
0.205070 0.429259 0.146377
0.103212 0.049221 0.148497
0.223220 0.800995 0.517763
0.160924 0.942634 0.331628
0.146665 0.810050 0.500157
0.112984 0.184691 0.151777
0.347961 0.947548 0.228294
0.138536 0.693631 0.552802
0.314342 0.828044 0.471465
0.219008 0.395239 0.190379
0.385776 0.933256 0.215666
0.471877 0.783913 0.439145
0.180992 0.287750 0.190166
0.206935 0.288187 0.136289
0.218757 0.767974 0.542046
0.202370 0.202028 0.131831
0.330863 0.888910 0.364424
0.249029 0.679821 0.294269
0.172275 0.050351 0.080450
0.117117 0.204101 0.156936
0.417094 0.898905 0.300223
0.287037 0.908032 0.381930
0.308144 0.861379 0.424185
0.219249 0.434791 0.158427
0.195901 0.025000 0.107139
0.150603 0.389014 0.188851
0.160958 0.112590 0.177332
0.457836 0.589044 0.507793
0.385825 0.931798 0.181038
0.193866 0.179475 0.160830
0.318492 0.754092 0.315640
0.097352 0.700187 0.523959
0.231037 0.865562 0.456278
0.398854 0.912844 0.286625
0.186259 0.524884 0.225192
0.138729 0.342855 0.175343
0.184742 0.266360 0.107023
0.341770 0.815153 0.346866
0.408207 0.918128 0.159647
0.227381 0.470783 0.170905
0.160059 0.025000 0.075395
0.188761 0.072089 0.159772
0.322608 0.840060 0.376871
0.149376 0.772200 0.522402
0.200130 0.442510 0.221235
0.309654 0.749218 0.298547
0.136637 0.025000 0.092944
0.148094 0.296862 0.112219
0.298011 0.797747 0.319415
0.199969 0.258704 0.122427
0.267469 0.737037 0.313987
0.120806 0.094036 0.167577
0.204439 0.230671 0.141820
0.293523 0.834126 0.473181
0.276839 0.634058 0.263587
0.477949 0.761960 0.452032
0.243629 0.829894 0.490626
0.400513 0.868944 0.337215
0.383493 0.885330 0.340485
0.275973 0.785886 0.529440
0.310805 0.874049 0.398303
0.298621 0.935756 0.334175
0.242247 0.500623 0.206378
0.203687 0.253306 0.157948
0.313156 0.831956 0.361330
0.468927 0.574409 0.494631
0.473980 0.557674 0.486313
0.273766 0.801760 0.514589
0.109894 0.111598 0.155165
0.125779 0.189796 0.169180
0.457577 0.902796 0.184213
0.163847 0.091676 0.080027
0.058789 0.901940 0.245395
0.194462 0.816486 0.503951
0.417457 0.827197 0.425709
0.249779 0.545454 0.236286
0.061224 0.909011 0.226613
0.528829 0.765413 0.242775
0.427132 0.906577 0.149272
0.160995 0.453369 0.192612
0.506716 0.799070 0.279572
0.183936 0.051200 0.165577
0.440148 0.908034 0.175093
0.294872 0.725049 0.279040
0.323726 0.764321 0.331247
0.225260 0.849905 0.473628
0.172295 0.025000 0.144005
0.173115 0.960144 0.300099
0.190201 0.192544 0.104705
0.113929 0.025000 0.093657
0.117825 0.243732 0.148273
0.116424 0.749991 0.518880
0.554200 0.645410 0.239574
0.403462 0.845750 0.400279
0.370179 0.937750 0.235954
0.283042 0.777794 0.316284
0.176326 0.932053 0.362216
0.311137 0.815634 0.489172
0.345228 0.917371 0.318439
0.145734 0.163856 0.085957
0.201602 0.182574 0.142680
0.447727 0.842554 0.331998
0.091247 0.931337 0.250310
0.038275 0.882239 0.231282
0.511268 0.768834 0.368923
0.520295 0.771044 0.315178
0.415122 0.804782 0.458304
0.138153 0.214112 0.178616
0.535816 0.747483 0.289189
0.265779 0.608159 0.262103
0.239352 0.525714 0.236031
0.368636 0.908405 0.318216
0.182175 0.026157 0.085837
0.201812 0.324316 0.128415
0.160613 0.392112 0.136889
0.390811 0.772697 0.508478
0.272879 0.758039 0.313131
0.339200 0.864350 0.364810
0.532612 0.753050 0.307577
0.416300 0.865878 0.325053
0.456172 0.904980 0.205669
0.166716 0.361001 0.201030
0.465985 0.842061 0.296332
0.156678 0.950442 0.309402
0.330755 0.860249 0.405360
0.556994 0.654605 0.257515
0.273032 0.636204 0.243876
0.285408 0.863033 0.438046
0.520929 0.776912 0.271884
0.448451 0.815475 0.420858
0.499337 0.672822 0.474585
0.160111 0.418275 0.149446
0.113732 0.130332 0.160266
0.339575 0.806258 0.365207
0.423833 0.715861 0.519677
0.226464 0.505690 0.235829
0.357705 0.850567 0.369942
0.193222 0.763639 0.540701
0.167642 0.468326 0.203998
0.213584 0.593595 0.208047
0.454522 0.900398 0.163622
0.101687 0.100649 0.134369
0.093168 0.667459 0.526474
0.212874 0.325917 0.163843
0.121250 0.136042 0.092963
0.314582 0.774485 0.308575
0.388162 0.929749 0.239720
0.226866 0.536770 0.183048
0.221516 0.638246 0.238095
0.128122 0.170210 0.093639
0.411585 0.843933 0.374092
0.261500 0.703121 0.258603
0.160462 0.426846 0.199463
0.229441 0.437370 0.184223
0.160834 0.317413 0.112686
0.175577 0.510525 0.198662
0.397574 0.831794 0.431965
0.180312 0.376044 0.206460
0.515874 0.769495 0.347676
0.200264 0.061214 0.136678
0.221665 0.818363 0.503105
0.137707 0.128159 0.082939
0.366388 0.940376 0.216737
0.154480 0.296814 0.189934
0.215478 0.618553 0.226297
0.225092 0.557458 0.188140
0.190752 0.150866 0.101738
0.552117 0.670296 0.234147
0.130496 0.960254 0.248057
0.211716 0.468681 0.227595
0.146643 0.233742 0.182461
0.437716 0.907179 0.254713
0.132223 0.331884 0.157903
0.152644 0.025000 0.154058
0.381087 0.814318 0.470708
0.450589 0.753702 0.478697
0.076131 0.924878 0.228437
0.547674 0.712283 0.251854
0.444644 0.861530 0.073624
0.365584 0.933423 0.146808
0.455624 0.656334 0.510632
0.340475 0.843037 0.392623
0.103542 0.077434 0.108525
0.098928 0.057979 0.129262
0.163534 0.340932 0.197509
0.446252 0.907514 0.229288
0.200469 0.935790 0.363049
0.211155 0.329560 0.144447
0.206793 0.268368 0.141210
0.068156 0.903144 0.296796
0.200065 0.233402 0.122242
0.153240 0.078094 0.177596
0.141862 0.369504 0.176105
0.204374 0.596385 0.227875
0.429501 0.814979 0.435034
0.206412 0.587491 0.246457
0.168294 0.232211 0.096306
0.120741 0.227646 0.115651
0.387264 0.823682 0.452537
0.208919 0.308857 0.140198
0.318772 0.796528 0.319083
0.179245 0.139482 0.171413
0.158388 0.025000 0.174157
0.231054 0.629921 0.221858
0.240105 0.689298 0.272542
0.220554 0.381993 0.175513
0.133303 0.172820 0.175057
0.270078 0.835642 0.479549
0.465566 0.891019 0.146735
0.404257 0.856866 0.355150
0.054434 0.895899 0.264665
0.180628 0.331337 0.116365
0.097170 0.025000 0.121267
0.200157 0.221063 0.158249
0.163510 0.924234 0.375683
0.160084 0.072041 0.077614
0.218769 0.940289 0.354832
0.463330 0.681969 0.499515
0.310719 0.748980 0.335837
0.123432 0.929104 0.329783
0.168932 0.091731 0.174167
0.261211 0.718122 0.308281
0.202033 0.409406 0.140417
0.130168 0.952621 0.271974
0.183614 0.477030 0.223025
0.200302 0.398107 0.208656
0.132996 0.301371 0.126815
0.470485 0.661888 0.498051
0.183047 0.112942 0.092050
0.420485 0.855722 0.342160
0.542447 0.726476 0.234661
0.263416 0.943114 0.342074
0.168831 0.043134 0.174652
0.303618 0.846906 0.450871
0.183703 0.312432 0.114366
0.257302 0.564218 0.233300
0.084666 0.909678 0.320908
0.211831 0.917753 0.397873
0.229339 0.754184 0.553643
0.186796 0.066916 0.092353
0.543980 0.729408 0.295586
0.498702 0.800891 0.315538
0.402412 0.925477 0.226625
0.487372 0.808513 0.329879
0.428606 0.913956 0.235922
0.205487 0.361362 0.136276
0.235745 0.915587 0.397140
0.028456 0.869645 0.205601
0.541322 0.734175 0.321836
0.206403 0.519070 0.173127
0.419126 0.698198 0.530710
0.119970 0.071424 0.085944
0.440551 0.838687 0.352388
0.364332 0.938901 0.170798
0.478447 0.835483 0.278220
0.176335 0.941191 0.344701
0.557316 0.625979 0.254559
0.231526 0.509381 0.180642
0.160148 0.025000 0.128871
0.324708 0.792838 0.362561
0.207312 0.344032 0.185962
0.396636 0.802838 0.474149
0.299399 0.705023 0.285991
0.249632 0.587028 0.210129
0.543718 0.728119 0.344835
0.181389 0.293464 0.110357
0.465385 0.756167 0.465647
0.430720 0.901325 0.282666
0.287860 0.708685 0.268974
0.323698 0.836034 0.454485
0.125774 0.247008 0.115409
0.361588 0.897847 0.335915
0.149048 0.964018 0.266281
0.168294 0.251917 0.098868
0.442249 0.895010 0.132537
0.480647 0.709350 0.478694
0.549235 0.692798 0.232716
0.469407 0.817548 0.350773
0.188853 0.172791 0.101755
0.326462 0.850636 0.428688
0.203723 0.537926 0.181513
0.228171 0.929463 0.375061
0.243795 0.519636 0.199140
0.227199 0.481311 0.224882
0.131887 0.278991 0.119389
0.286785 0.929220 0.351265
0.193254 0.098437 0.103270
0.173729 0.165203 0.089991
0.207261 0.381320 0.199780
0.325723 0.819297 0.332522
0.432831 0.860347 0.316400
0.271403 0.925549 0.366089
0.224355 0.783261 0.531210
0.451355 0.873792 0.097179
0.461945 0.808347 0.385208
0.418666 0.870071 0.068881
0.119853 0.264336 0.140024
0.170852 0.441177 0.151483
0.227643 0.962709 0.312934
0.214876 0.346229 0.154366
0.295096 0.703577 0.309357
0.282819 0.945690 0.328648
0.261147 0.586842 0.226563
0.428186 0.886686 0.099455
0.252223 0.635955 0.225086
0.189216 0.199880 0.169777
0.212635 0.490089 0.234098
0.236884 0.668664 0.247858
0.407823 0.862968 0.051714
0.326582 0.776857 0.346568
0.251983 0.842649 0.476458
0.161822 0.407124 0.201462
0.252214 0.771618 0.542513
0.172252 0.199536 0.180319
0.478050 0.804685 0.363358
0.196744 0.390736 0.134468
0.220408 0.635544 0.258545
0.319560 0.904523 0.357849
0.159505 0.183696 0.087501
0.391518 0.905849 0.102449
0.169485 0.025000 0.107230
0.491308 0.654750 0.482334
0.500874 0.811470 0.264580
0.348488 0.883547 0.357681
0.205772 0.854818 0.471244
0.501737 0.791495 0.332714
0.125569 0.275689 0.162041
0.250102 0.934729 0.360720
0.443165 0.678582 0.515131
0.218418 0.495810 0.168281
0.354693 0.845641 0.433951
0.133779 0.322527 0.135848
0.174615 0.463760 0.159441
0.192222 0.304353 0.187920
0.430167 0.831552 0.379692
0.227980 0.619831 0.270651
0.137628 0.939960 0.317177
0.192443 0.346162 0.123766
0.206735 0.565409 0.248098
0.240405 0.650036 0.231192
0.199784 0.115860 0.122931
0.151845 0.175726 0.180488
0.185441 0.095332 0.163310
0.106486 0.916340 0.341612
0.209960 0.293589 0.155278
0.222194 0.455719 0.216422
0.496998 0.698429 0.470085
0.116193 0.937138 0.291377
0.332832 0.868039 0.383966
0.100543 0.075563 0.137906
0.223614 0.580431 0.197977
0.351948 0.863926 0.386113
0.352919 0.941662 0.252948
0.140347 0.046004 0.177834
0.446034 0.727341 0.496068
0.422135 0.676385 0.534429
0.362060 0.868790 0.362416
0.196481 0.086265 0.146955
0.428353 0.754555 0.494749
0.137384 0.356201 0.153296
0.123464 0.774975 0.511344
0.552008 0.693667 0.254248
0.137327 0.922088 0.362387
0.421622 0.788846 0.471025
0.161767 0.708241 0.559123
0.200533 0.153735 0.140838
0.113687 0.941767 0.271985
0.142006 0.754402 0.528645
0.384787 0.867402 0.351713
0.149427 0.407812 0.181734
0.269038 0.720244 0.268366
0.243227 0.662553 0.287631
0.216874 0.408665 0.153283
0.189012 0.365992 0.126512
0.197666 0.575734 0.217185
0.093880 0.929728 0.269693
0.177582 0.142696 0.089518
0.410621 0.911336 0.136734
0.190562 0.247009 0.110067
0.305672 0.722310 0.295662
0.426779 0.915051 0.187447
0.155998 0.277248 0.188835
0.493750 0.631675 0.481908
0.199160 0.504500 0.235426
0.161137 0.450014 0.170505
0.280928 0.752175 0.330066
0.293126 0.683667 0.282514
0.164100 0.123219 0.082696
0.043246 0.889615 0.210021
0.127923 0.308996 0.150990
0.255668 0.576700 0.251250
0.288936 0.733829 0.329825
0.184215 0.264369 0.184013
0.248446 0.528982 0.219146
0.138813 0.344712 0.137730
0.210056 0.744254 0.556742
0.116357 0.025000 0.134326
0.544527 0.726577 0.270217
0.210938 0.831470 0.491937
0.196641 0.278296 0.118793
0.251317 0.709134 0.292967
0.188638 0.484989 0.161828
0.198474 0.180238 0.117806
0.516126 0.789948 0.250864
0.480360 0.681605 0.486780
0.191086 0.743736 0.552188
0.108237 0.172019 0.136994
0.110358 0.193857 0.133452
0.549863 0.716959 0.325485
0.245362 0.559540 0.251473
0.205034 0.273657 0.163184
0.285593 0.687258 0.262682
0.139699 0.254739 0.180446
0.486944 0.744474 0.457075
0.450398 0.826134 0.364454
0.563458 0.635390 0.276941
0.215309 0.385790 0.151081
0.146505 0.196805 0.180646
0.195936 0.968594 0.294344
0.201005 0.525435 0.240078
0.432666 0.655938 0.530126
0.407319 0.919903 0.252842
0.152177 0.374706 0.136668
0.390047 0.902637 0.313092
0.161609 0.729042 0.549157
0.178793 0.396798 0.209797
0.179329 0.775844 0.529196
0.177968 0.386528 0.129835
0.141601 0.257713 0.104566
0.114519 0.067790 0.163323
0.196265 0.046789 0.149253
0.172283 0.797557 0.513865
0.149102 0.403646 0.159028
0.202260 0.360541 0.197090
0.352001 0.828420 0.366800
0.269146 0.611422 0.242190
0.133838 0.213646 0.099100
0.485829 0.595090 0.485831
0.235960 0.635553 0.279043
0.158706 0.132237 0.178230
0.106041 0.148662 0.135923
0.277727 0.718032 0.320613
0.115265 0.160446 0.104628
0.312819 0.811585 0.365857
0.308919 0.922005 0.344652
0.107064 0.132752 0.113609
0.226671 0.568846 0.259315
0.246203 0.872425 0.443023
0.459808 0.883495 0.120819
0.558073 0.697301 0.329534
0.395146 0.914084 0.125028
0.187093 0.954089 0.321312
0.207972 0.927591 0.379931
0.296520 0.803422 0.508245
0.417517 0.771807 0.489677
0.295508 0.762942 0.294047
0.529562 0.753925 0.334180
0.349631 0.854747 0.414896
0.177858 0.921102 0.388144
0.303477 0.776001 0.350937
0.126511 0.140449 0.171051
0.186605 0.122058 0.163858
0.104048 0.106167 0.113127
0.149109 0.355211 0.189312
0.249265 0.859365 0.458361
0.262131 0.650064 0.234585
0.336320 0.797351 0.341234
0.178407 0.426030 0.141459
0.209196 0.956732 0.322712
0.241106 0.810389 0.509672
0.282822 0.750365 0.285321
0.139566 0.068100 0.077312
0.210280 0.425199 0.213005
0.181790 0.416694 0.213967
0.147805 0.333339 0.122589
0.232595 0.456954 0.187389
0.154481 0.957917 0.287764
0.453781 0.797676 0.438532
0.250162 0.922038 0.381404
0.159737 0.356761 0.124848
0.301101 0.800367 0.352869
0.373636 0.919327 0.114450
0.473218 0.606133 0.495815
0.440348 0.713111 0.507930
0.115045 0.208260 0.121293
0.496643 0.783259 0.372503
0.141730 0.376035 0.157609
0.260910 0.623827 0.277754
0.561407 0.684424 0.313307
0.181750 0.530168 0.206831
0.196780 0.283432 0.179277
0.224672 0.601013 0.266011
0.172909 0.488444 0.209182
0.199035 0.069222 0.112641
0.122203 0.683359 0.546127
0.119577 0.113431 0.090515
0.536966 0.747141 0.269620
0.131784 0.303037 0.169273
0.145051 0.109837 0.079847
0.132047 0.025000 0.174659
0.267581 0.858990 0.452300
0.184027 0.722583 0.561699
0.204700 0.545293 0.245044
0.381515 0.927551 0.262552
0.151021 0.154990 0.179604
0.189271 0.546607 0.225736
0.443907 0.634793 0.521505
0.278782 0.846586 0.463310
0.149343 0.276522 0.105891
0.189317 0.547720 0.201524
0.172932 0.066039 0.172402
0.149830 0.025000 0.109205
0.549000 0.713899 0.285017
0.266461 0.956913 0.317684
0.234752 0.474479 0.208130
0.120932 0.025000 0.157273
0.381408 0.921689 0.281983
0.326614 0.820549 0.377595
0.556326 0.674947 0.260474
0.162667 0.250221 0.186692
0.399477 0.927557 0.198960
0.122348 0.190562 0.103011
0.191910 0.131440 0.102281
0.214842 0.458733 0.157613
0.142356 0.934341 0.336196
0.493601 0.720579 0.464256
0.188103 0.324011 0.194252
0.428916 0.856029 0.056825
0.078508 0.913731 0.283189
0.180377 0.458336 0.219427
0.240625 0.608833 0.210835
0.286683 0.668528 0.268390
0.190402 0.044085 0.094088
0.215082 0.364138 0.181747
0.257795 0.649951 0.290758
0.373974 0.840095 0.433093
0.416127 0.921243 0.213249
0.394760 0.755052 0.519514
0.278938 0.652040 0.281793
0.138144 0.789463 0.509568
0.192160 0.248043 0.175105
0.482358 0.825030 0.297199
0.101868 0.920081 0.322449
0.426438 0.897301 0.119593
0.124669 0.285181 0.137809
0.370419 0.848648 0.415947
0.199272 0.155823 0.118320
0.266196 0.743315 0.293067
0.203558 0.569524 0.199489
0.221242 0.949938 0.337624
0.113673 0.216466 0.139606
0.168487 0.442550 0.208473
0.247149 0.950953 0.333577
0.206340 0.302446 0.172481
0.193743 0.467283 0.154432
0.390244 0.843422 0.414609
0.555748 0.689757 0.272822
0.267475 0.697250 0.309962
0.189558 0.446851 0.147889
0.138446 0.284859 0.179419
0.429457 0.737371 0.503989
0.474539 0.632148 0.496704
0.450606 0.851621 0.305027
0.411082 0.898751 0.107808
0.188207 0.347362 0.200397
0.142974 0.087199 0.078268
0.536895 0.744456 0.242509
0.137462 0.025000 0.136302
0.125196 0.025000 0.111029
0.258428 0.726158 0.283532
0.403148 0.786566 0.486797
0.304304 0.819018 0.347655
0.200470 0.050065 0.119163
0.217698 0.367497 0.159145
0.556082 0.693941 0.291855
0.135615 0.945985 0.292141
0.307802 0.813375 0.328405
0.181355 0.406576 0.135146
0.153905 0.204542 0.091292
0.195451 0.564106 0.232548
0.122729 0.094898 0.086291
0.477398 0.796300 0.383593
0.104592 0.682261 0.533330
0.303893 0.904334 0.372279
0.264456 0.592935 0.245717
0.250866 0.709272 0.273681
0.181306 0.091192 0.089026
0.169160 0.278622 0.103856
0.140201 0.190983 0.091192